ply
format ascii 1.0
element vertex 1226
property float x
property float y
property float z
property uchar red
property uchar green
property uchar blue
end_header
5.273127 -8.542209 24.703491 207 181 122
-0.054178 0.927593 11.360621 208 157 130
-0.712256 -1.285530 11.948397 28 0 0
-0.692596 0.219637 11.535160 95 79 46
-0.573226 0.279536 11.539705 34 25 18
-0.653411 -1.163259 12.046431 219 251 255
0.368034 -0.451738 13.044064 206 184 161
-0.287524 -0.944962 11.356016 197 67 18
5.244614 -8.444050 24.328712 240 217 173
0.285389 -1.021716 12.172064 170 75 73
0.040832 0.174250 11.732179 89 68 37
-1.682304 0.680935 10.922607 152 114 67
-0.445490 0.579860 11.611573 174 111 32
-0.155417 -1.154326 11.801676 240 233 225
-1.151882 -0.978400 13.816602 71 18 10
5.278276 -8.890479 25.612686 251 255 245
0.036209 0.780127 11.951452 202 126 90
-0.393864 0.279760 11.542863 228 158 44
-0.722941 -1.154045 12.043505 193 194 186
0.996054 -2.546825 15.468802 170 28 14
-0.024747 0.840061 11.449260 155 100 80
-0.268812 -0.908904 11.266122 159 36 0
-0.336932 -0.657637 11.643625 255 149 114
-0.712706 -1.085758 12.442964 255 243 236
-0.652203 4.559122 12.955734 128 92 58
-0.541983 -1.115365 11.967667 20 44 44
4.495568 -5.249239 20.139347 255 255 241
-1.279723 -1.373674 13.086701 64 23 19
-1.293598 -1.074322 14.002041 70 31 26
-0.006577 0.765374 11.582440 219 150 111
0.057019 0.775988 11.835958 227 136 91
0.141758 -1.259908 11.785706 175 42 25
-0.437966 -0.720742 11.646433 230 131 102
-0.492760 -0.893646 11.545619 146 30 0
0.008267 1.034475 11.445393 240 157 117
-0.765688 -1.053688 12.250524 208 93 64
-0.165710 0.876579 11.228096 141 100 68
-0.987981 -1.168811 12.874132 255 245 237
1.981522 -3.503847 16.378750 232 54 54
-1.322138 -1.111449 13.731221 223 211 199
-0.662687 -1.155085 11.880431 189 233 242
-0.057032 0.757183 11.260871 154 100 72
-0.667433 -1.151717 12.206479 0 52 66
-0.127222 0.170469 11.459030 82 59 27
-0.732093 -1.139376 12.147861 238 250 240
-0.078255 -1.146321 11.962972 76 102 99
-0.568361 0.284138 11.559016 38 27 21
-1.604146 1.093235 10.568868 255 253 243
0.332568 0.830233 12.583332 252 248 237
0.786100 -0.334275 13.785685 120 115 109
0.169949 0.554913 12.307942 255 254 251
-0.662103 -1.206706 12.046088 38 57 71
-1.106600 0.126899 11.417090 105 18 0
-0.328560 -0.858899 11.359503 254 152 112
-0.667912 -1.085722 12.151570 0 93 101
0.091651 -1.194731 11.710576 232 136 114
-1.146790 0.281685 11.488579 122 38 1
3.749361 -4.551261 19.215300 221 246 242
-0.633437 -1.131701 12.003385 14 39 59
4.389019 -8.578908 24.661690 35 125 116
-0.225407 -1.140833 11.546888 255 226 205
-0.544271 -1.098971 11.941430 6 16 8
4.344312 -7.017557 22.493750 45 40 21
-0.395546 -0.756908 11.627810 225 222 207
-0.822619 -1.269455 12.366731 155 82 67
-0.561450 -1.164046 11.849051 16 29 45
-0.652929 -1.342553 11.366878 53 12 6
0.434927 0.620874 13.073512 24 23 21
0.255646 0.467534 12.588228 255 254 252
3.576442 -4.514087 18.517132 169 176 134
-0.350385 -0.839313 11.264454 243 152 105
-0.788619 -1.055030 12.533937 240 119 90
0.281160 -1.016850 12.082008 187 85 81
-1.481722 0.904279 10.952568 116 64 16
-1.838593 0.891511 10.679784 123 89 44
-0.016737 -1.161319 11.535976 0 98 135
-0.647244 -1.082020 12.256628 34 109 112
-0.673708 -1.085146 12.126174 62 135 142
-0.537969 0.353550 11.804971 201 138 41
-0.738737 -1.159351 12.319324 235 245 236
-0.662110 -1.110988 12.046115 47 155 167
-0.260734 0.256137 11.268134 156 126 92
0.490541 -0.305193 13.035864 178 153 122
-1.138134 0.240223 11.319933 225 128 83
0.196942 0.950842 11.578620 255 164 116
0.025271 0.819819 11.357591 55 0 0
-0.766009 -1.393555 12.051179 192 84 58
-0.571172 -1.265120 12.058768 201 107 71
0.149741 0.572937 12.334019 230 224 224
-0.492242 -0.894890 11.572044 146 30 0
4.081954 -7.377934 22.869999 218 138 65
-0.006528 0.819737 11.252601 69 14 0
1.940673 -3.297303 15.780572 199 44 42
-0.085571 -0.048439 11.841921 184 155 121
-1.226875 -0.893836 14.749032 186 180 166
-1.484795 0.754879 10.585688 255 197 87
1.121451 0.203674 10.301247 250 249 245
0.089939 2.756695 10.614579 231 215 190
-0.275050 3.730235 10.670049 144 141 132
-0.186871 0.462215 9.612640 144 80 9
-0.194897 0.490248 9.613317 201 137 50
1.152052 1.674996 10.367025 20 18 21
-0.175023 0.485198 9.603579 174 125 67
0.160220 2.838929 10.596355 21 14 4
-0.076508 0.809635 9.621335 215 147 72
-1.303510 0.799334 8.896348 119 63 4
-0.267135 3.711041 10.660810 246 243 234
-0.149975 0.460185 9.601336 161 125 89
0.129338 2.800809 10.581524 41 23 11
-0.184939 0.791614 9.685589 243 199 110
-0.368897 -1.174772 9.657189 77 11 0
0.147186 2.833534 10.647154 26 16 7
0.489883 2.805549 10.596773 34 29 26
0.524442 0.582893 10.353991 255 243 231
-0.417919 -0.930915 9.824154 43 92 96
-0.634542 0.676345 9.877896 150 115 83
-0.308987 3.736269 10.644515 20 17 8
-0.634305 2.797157 10.745152 255 249 231
-0.126436 0.805697 9.598093 138 77 20
-0.626402 2.813447 10.766183 77 50 20
-0.410015 0.775815 9.684277 247 191 68
-0.391969 -0.898896 9.851015 52 177 195
-0.183373 0.460188 9.604290 118 59 0
0.845419 3.593193 10.103023 155 92 21
0.514471 2.777029 10.612366 40 27 19
-0.194904 0.790578 9.613361 250 208 106
0.379316 1.675891 10.187737 248 229 212
-0.627386 0.671987 9.856335 158 127 106
0.091961 -0.938288 9.771632 26 95 111
0.113383 -0.952217 9.802776 10 145 175
-0.458671 -1.062317 9.784453 86 23 5
0.008425 -1.017105 9.753679 175 164 146
-0.187829 0.786349 9.661356 206 169 98
0.667409 -0.052065 10.512689 255 252 243
-0.406675 0.785742 9.704377 243 188 59
0.425324 3.746418 10.690328 244 244 236
-0.620276 0.654234 9.855342 31 3 0
0.120453 -0.987747 9.801682 0 58 88
0.420556 3.780758 10.814303 251 250 245
-0.210252 -0.613902 9.760233 252 148 109
-0.611453 0.656360 9.838090 38 15 7
0.178915 0.866745 9.686864 237 174 141
-0.573319 3.594817 10.371564 28 9 0
-0.111366 0.819335 9.664370 131 68 1
-0.118479 0.815974 9.653304 138 77 14
0.509050 2.784235 10.599085 39 26 17
0.849187 3.641603 10.106816 122 78 31
0.528924 2.735856 10.614222 204 174 140
-0.427571 -0.916630 9.853724 36 77 79
-0.069455 0.297656 9.621160 136 93 61
-0.411134 -0.892268 9.865785 36 109 116
-0.461187 0.340413 9.662483 149 121 97
0.049985 0.744027 9.579979 133 98 78
-0.326911 -1.166555 9.654519 251 151 115
0.867527 3.637962 10.115428 125 86 45
-0.379488 0.589991 9.675283 216 163 85
0.074637 -1.030770 9.779906 228 239 243
0.849218 0.697700 10.326902 32 32 24
0.718097 3.545595 10.299339 49 10 0
-0.175212 0.479560 9.588490 178 127 64
-0.195677 0.788410 9.604154 250 208 106
-0.178353 0.477326 9.602641 175 117 44
0.672195 -0.046428 10.466542 255 252 244
-0.091882 -1.165294 9.593037 246 126 76
0.520993 2.753824 10.589768 27 0 0
0.592622 3.619741 10.189650 59 41 21
-0.469889 -0.876480 9.876402 121 36 15
0.380379 1.670498 10.218511 248 229 212
-0.565909 3.613718 10.426147 23 16 10
0.682571 -0.118454 10.625667 117 109 98
-0.263337 0.295931 9.676429 201 136 44
-0.554992 3.605352 10.444344 18 17 13
-0.116876 0.818044 9.664423 138 77 14
-0.864912 1.599892 10.306751 251 228 236
0.911862 3.649236 10.198772 255 254 243
-0.437837 0.761717 9.701678 233 173 85
0.794045 0.704227 10.282100 63 31 18
-0.292667 0.279967 9.667183 191 151 79
-0.302265 0.184808 9.695991 237 146 91
0.113786 -0.977143 9.838156 46 202 224
0.549937 -0.593283 10.705505 239 218 199
1.385868 -2.461015 11.758029 200 57 51
1.538451 -3.285106 12.820437 21 155 105
-0.978512 -0.899703 10.436342 140 119 114
0.050886 -1.080262 9.783051 115 120 114
-0.109185 -0.553648 9.677978 255 149 115
0.455689 3.792767 10.846162 9 6 0
-0.155995 0.460063 9.561806 138 95 50
-0.303302 0.285971 9.621317 217 190 147
-0.050907 -1.174073 9.595965 74 2 0
0.730261 3.566089 10.301109 197 129 66
-0.145627 0.463403 9.595222 159 129 101
-0.326578 -1.123401 9.608592 64 0 0
0.514919 2.760128 10.590912 38 6 0
-0.428290 -0.917841 9.866591 67 112 115
-0.359670 -0.918133 9.863141 13 100 127
-0.343440 -1.157940 9.647284 87 22 4
-0.449284 -0.866319 9.875607 89 17 2
-0.038923 -1.223829 9.654700 80 9 5
-0.351607 -1.147790 9.615713 63 19 8
-0.316929 -1.165203 9.613409 254 135 92
0.379427 1.580750 10.092002 71 40 48
-0.427662 -0.863160 9.852674 246 208 197
-0.393375 -0.866474 9.886232 242 245 238
-0.062995 -1.211831 9.650867 218 124 98
0.118698 -0.986282 9.773729 0 58 88
0.553495 0.563062 10.349946 55 22 7
-0.298781 0.212804 9.669557 230 190 155
-0.160740 -0.635391 9.727444 222 223 209
0.033849 -1.067533 9.765141 116 121 114
0.675884 3.517674 10.054489 197 116 27
-0.075051 -1.212761 9.647171 215 96 64
-0.137774 0.212381 9.666088 237 155 53
-0.295783 -0.662906 9.734320 86 0 0
0.663870 -0.047592 10.549518 255 254 243
0.175810 0.152842 9.724578 174 152 115
0.724334 3.541316 10.301576 51 18 13
-0.308734 0.285089 9.613626 217 190 147
0.235897 0.869869 9.703414 179 72 18
-0.046875 -1.215160 9.595710 87 13 2
0.854373 0.694043 10.337231 12 9 2
-0.370725 -0.935223 9.814570 11 27 43
-0.377916 0.613632 9.683488 137 95 53
0.654731 -0.181567 10.489987 255 252 243
0.647318 -0.182815 10.553905 212 199 183
-0.083177 0.272402 9.587944 70 21 0
-0.426351 -0.977837 9.825776 18 32 32
-0.454026 -0.866414 9.867601 105 24 5
0.076292 -0.729313 9.766368 110 21 0
-0.219165 -0.636047 9.712820 73 18 0
0.687208 -0.122795 10.584447 80 73 65
-0.294815 0.203969 9.738032 208 149 107
-0.444050 -0.999649 9.804847 126 129 120
0.538868 0.873054 10.074080 255 251 242
-0.074683 -1.204392 9.600355 224 104 69
-0.491823 -0.951858 9.856243 122 112 103
-0.447392 -0.941565 9.819689 224 225 209
-0.426139 -0.973475 9.817810 14 28 28
-0.197587 -0.607124 9.754658 226 127 98
0.070008 0.148582 9.671393 82 59 27
-1.146924 0.727200 8.808514 255 189 85
-0.234583 -0.756308 9.647577 181 66 22
-0.397646 -0.851208 9.749799 255 253 247
0.059640 -0.948156 9.824426 233 225 214
0.041833 1.064312 9.621801 163 98 0
0.586811 3.614732 10.180902 59 41 21
-0.260126 -0.945484 9.724549 211 133 94
2.733381 -3.436804 13.237915 153 93 31
-0.377728 -1.174883 9.625215 69 4 0
-0.377908 0.239136 9.683822 138 126 104
0.009389 -1.109613 9.708178 120 55 37
-0.147655 0.190826 9.667469 240 164 66
-0.307197 0.207535 9.668147 226 176 143
-0.017297 -1.046448 9.711600 35 3 0
-0.147475 0.193046 9.655715 240 164 66
0.569899 -0.087168 10.387603 97 80 54
-0.255496 0.208588 9.696197 53 27 2
-0.441167 0.762891 9.680269 239 174 90
-0.112148 -0.553062 9.691961 255 149 115
-0.363418 -0.913241 9.849502 18 101 131
0.586740 -0.584251 10.906243 64 57 41
-0.075081 -1.169356 9.591411 255 160 110
-0.460332 0.343418 9.677441 141 106 76
0.375253 0.678105 10.080206 255 250 236
0.058602 -0.988004 9.822800 21 72 76
0.156321 0.828819 9.633566 40 7 0
-0.950295 -0.814323 10.356496 157 139 127
-0.046433 -0.988130 9.715153 146 82 47
-0.023032 -1.192947 9.669340 53 6 0
-0.198440 0.479231 9.571103 187 120 33
-0.285868 3.747807 10.680642 17 14 5
-0.370971 0.633959 9.678451 131 100 79
-0.462165 0.340356 9.682553 149 121 97
-0.334844 -1.134320 9.637946 76 11 0
-0.313626 -0.885780 9.759274 11 54 63
0.054451 -0.990070 9.800093 4 52 54
-0.428550 -0.923049 9.876247 38 78 78
-0.312466 -0.889223 9.777917 11 54 63
0.107680 -0.981546 9.835291 42 186 212
-0.305871 0.233690 9.699585 30 26 15
0.139297 0.794221 9.627810 153 116 100
2.768328 -3.456105 13.248043 106 53 1
0.056500 -1.083704 9.775270 110 115 108
0.626414 -0.031537 10.433846 17 9 0
0.127074 -0.969922 9.765502 60 218 247
-0.177380 -0.636266 9.724484 211 201 189
0.669932 -0.093969 10.573122 65 53 41
-0.322220 -0.923131 9.769794 0 40 80
-0.050598 -0.969891 9.712347 73 7 0
-0.385288 -0.905327 9.865721 58 172 196
0.634580 -0.113104 10.626737 142 124 100
-0.455352 0.351712 9.733280 135 96 55
0.118436 -1.020463 9.854160 9 19 28
-0.366588 0.583701 9.641611 206 149 60
-0.258773 0.287156 9.820061 217 148 45
-0.477550 -0.859454 9.855636 197 91 67
0.167096 0.856952 9.623913 209 164 135
0.591141 -0.582184 10.900024 153 150 135
2.080049 -3.404742 12.902605 51 179 128
-0.196684 -0.581295 9.713860 206 80 42
-0.452087 -0.939259 9.825651 217 214 199
0.267248 0.022122 9.925992 80 56 20
-0.041825 -1.221153 9.628929 80 9 5
0.723966 3.549018 10.321812 51 18 13
-0.339592 -1.137933 9.622557 77 21 6
-0.045764 -1.174966 9.573767 65 4 0
0.012097 -0.691163 9.781815 78 12 0
0.734780 3.537456 10.260147 36 1 0
0.000019 -0.682460 9.713744 72 10 0
0.741934 3.549520 10.297630 54 29 7
-0.293792 0.214715 9.674289 244 198 162
-0.050073 -1.168419 9.609671 74 2 0
0.246400 0.904893 9.717617 208 147 118
0.044115 -0.949160 9.784162 242 235 216
2.821295 -4.420075 13.960662 250 248 225
0.658456 -0.166973 10.584200 255 249 237
-0.972002 -0.858050 10.419764 99 81 69
0.243319 -0.987947 9.892975 248 147 105
2.737412 -4.490922 13.873817 231 252 247
-0.463355 -0.870100 9.854138 81 6 0
-0.399107 -0.913099 9.851386 56 157 165
-0.166486 0.484235 9.597117 197 146 99
0.041920 1.063687 9.642179 163 98 0
0.084934 -1.034801 9.805859 245 254 255
-0.400723 -0.952409 9.824533 220 255 255
-0.393978 -0.883791 9.864944 49 150 162
0.076188 -0.944137 9.739044 18 82 92
0.053803 -1.050739 9.730952 3 12 7
-0.014888 -0.966768 9.751628 253 227 202
0.494799 0.928723 10.135147 24 6 4
0.160806 0.814432 9.660008 223 154 123
0.213392 0.182722 9.826699 177 160 130
-0.541790 -1.001318 9.857735 142 70 58
-0.499047 -0.848566 9.855331 224 102 79
-0.479658 -0.921970 9.869815 239 232 222
0.159075 0.828622 9.645338 45 0 0
-0.075001 -1.150656 9.591993 255 169 114
-0.046917 -1.176282 9.645903 74 2 0
0.013548 -1.020800 9.788005 194 187 169
0.046340 -0.951117 9.824490 234 235 221
1.365229 -2.473519 11.776182 254 28 16
2.912754 -3.818506 13.641188 199 141 68
-0.305869 0.158353 9.699619 245 144 88
0.092136 -1.009233 9.805700 0 19 27
-0.340887 -0.920535 9.812242 0 50 83
-0.564264 -0.118865 9.849414 154 139 116
-0.490494 -0.886631 9.877120 124 41 25
-0.461988 -0.875973 9.926713 104 41 24
-0.086687 -1.156331 9.601767 255 163 105
-0.040422 -1.001127 9.671680 88 31 2
0.228271 -1.053845 10.003462 32 0 0
-0.143730 0.200747 9.599409 241 158 54
-0.033061 -1.195480 9.552759 49 2 0
-0.363993 0.253110 9.677411 110 103 85
0.323960 0.022069 9.951632 62 41 10
-0.048824 0.406902 9.651934 108 79 61
-0.253094 2.753234 10.721221 112 81 60
-0.364848 -0.918485 9.822603 4 32 53
-0.405983 -0.953936 9.823366 205 246 252
-0.284780 0.289412 9.694812 193 141 57
-0.104137 -0.724051 9.588337 218 119 77
-0.169630 -0.638387 9.765423 228 222 210
0.134610 -0.930770 9.799713 121 111 99
0.648546 -0.160729 10.521065 252 239 223
0.650290 -0.121368 10.552312 168 151 133
-0.066908 -1.204478 9.631905 236 129 97
-0.273776 1.531410 9.856844 79 34 3
-0.076680 -1.150297 9.600642 255 169 114
-0.406068 -0.918175 9.780794 19 84 90
-0.462599 -0.972776 9.891899 139 129 119
0.152141 0.730059 9.734968 26 0 0
0.603365 -0.328601 10.664118 58 45 29
-0.055568 -0.737880 9.582920 207 104 61
0.272939 0.018514 9.924825 67 45 8
-0.228437 -0.762986 9.566810 158 36 0
-0.709739 -0.183816 10.013639 204 185 155
1.310945 -3.744839 13.336565 41 177 129
0.179253 -0.957535 9.835910 54 39 34
1.609491 -5.271709 15.261780 137 115 78
-0.016954 -0.965560 9.749925 253 227 202
-0.457234 -0.933246 9.825613 245 246 232
-0.377638 0.241885 9.625619 112 101 81
-0.063422 -0.647510 9.717454 255 251 248
-0.431622 -0.871413 9.805877 250 241 232
-0.296967 -0.922008 9.810323 43 122 126
-0.496049 -0.839660 9.868556 243 119 93
-0.372242 0.603015 9.699637 180 127 51
0.029720 -0.957247 9.793751 248 239 224
-0.623438 1.302264 9.683418 245 187 105
-0.484686 -0.923443 9.855967 239 229 219
-0.390479 -0.948924 9.817040 234 255 255
-0.033861 -0.660286 9.752301 255 232 223
-0.279440 2.740233 10.730974 69 29 3
2.447942 -5.022458 14.473441 134 58 0
-0.494697 -0.951914 9.828415 42 32 23
-0.223190 -0.645408 9.790991 71 7 0
-0.002751 -0.966078 9.782039 251 231 206
-0.305226 0.170615 9.679277 237 146 91
2.274264 -3.034615 12.941568 237 255 251
-0.390482 -0.870909 9.816978 22 95 102
-0.275207 -0.960644 9.753561 41 6 0
1.462282 -3.962590 13.667363 25 147 106
-0.270514 -0.923330 9.735555 255 212 172
0.252162 0.902454 9.680265 193 130 97
-0.290275 -0.914087 9.716920 2 52 43
0.146750 -0.713433 9.822268 119 45 16
0.627082 -0.161834 10.498847 79 61 39
0.074004 0.142816 9.681851 56 33 1
-0.332534 -0.878069 9.769251 69 164 182
-0.331572 -1.211910 9.957285 254 135 92
0.144704 -0.972828 9.835160 51 218 237
0.621890 -0.241295 10.509582 147 125 101
-0.186831 0.461820 9.563543 134 71 0
2.765467 -3.505672 13.326674 226 149 67
-0.819039 0.271833 9.357687 221 134 89
0.493600 0.644132 10.335053 210 174 162
2.824677 -4.411452 13.962836 255 255 225
0.009594 -0.685244 9.769656 59 0 0
0.180591 -1.010824 9.784297 23 122 143
0.327671 0.808773 9.785640 242 138 87
0.233968 -0.993320 9.870216 242 154 116
0.493735 2.719814 10.662554 138 66 16
0.629544 -0.160475 10.508738 79 61 39
-0.799395 0.216667 9.397394 239 144 90
-0.259362 1.605147 10.062621 255 255 250
-0.893057 1.596306 10.231741 255 251 255
-0.883508 -0.884867 10.331249 255 255 246
0.021085 -1.010164 9.791787 230 228 207
2.029445 -5.133597 14.700735 108 39 0
0.505797 2.684904 10.592355 255 242 204
-0.034650 -0.754595 9.616072 144 28 0
-0.062507 -0.779559 9.583673 242 99 65
-0.217616 -0.788106 9.700735 255 119 83
-0.037216 -0.659707 9.744352 255 232 223
-0.291619 -0.669825 9.767891 98 18 0
0.224097 -0.664271 10.002392 176 116 90
0.085677 -0.034311 9.865319 199 178 149
-0.261970 -0.965589 9.731520 221 124 89
0.203450 0.179593 9.763458 179 162 132
1.378438 -2.469604 11.785780 236 62 55
-0.442740 -1.060483 9.737377 70 18 0
-0.168512 -0.636073 9.708373 216 208 197
1.348875 -2.460629 11.709002 255 30 17
0.248618 -1.005942 10.094019 244 146 109
-0.128595 0.356545 9.604738 160 98 25
2.702814 -3.449244 13.257215 134 97 45
2.464352 -4.926462 14.320319 231 224 208
1.322142 -2.512645 11.788713 210 60 61
-0.378877 -0.932020 9.872949 26 52 69
-0.383744 0.596918 9.643391 210 164 112
1.595480 -5.090096 14.957255 182 143 100
0.179340 -0.981156 9.836453 89 188 207
0.102640 -0.986518 9.861140 55 173 199
-0.066102 -0.766933 9.532207 247 100 66
-0.879184 1.581236 10.160315 255 248 252
0.614861 -0.310500 10.743560 207 195 179
-0.401491 -0.958228 9.844262 220 255 255
-0.292845 -0.915349 9.665515 43 122 126
-0.634538 1.271612 9.706990 235 183 71
-0.407702 -0.887838 9.886948 20 87 95
0.379891 -0.360587 10.418821 189 169 145
0.239036 -1.002837 9.840027 241 146 118
-0.537940 -1.006869 9.837154 142 55 45
1.317225 -2.508689 11.769736 210 60 61
0.396847 -0.334707 10.390985 80 56 22
-0.441182 -1.060541 9.746894 70 18 0
1.314359 -2.488609 11.718014 215 53 50
0.382466 0.667816 10.172661 252 253 247
2.652580 -3.398165 13.153323 255 248 213
0.247141 0.892335 9.691185 191 90 44
0.056854 -0.991699 9.811584 4 52 54
-0.055452 -0.803931 9.583793 203 73 24
0.143778 0.795787 9.624096 206 154 130
-0.779852 0.177765 9.397900 243 146 93
2.659786 -3.427634 13.241771 255 251 215
2.670772 -3.436439 13.237680 255 249 192
0.049618 -1.037887 9.811470 35 36 31
1.381435 -2.470721 11.867630 190 38 35
1.197215 -3.849210 13.467747 22 153 109
-0.533444 -0.162738 9.912168 120 108 86
-0.442169 -1.052909 9.704462 31 0 0
-0.281401 -0.919095 9.718470 35 42 24
-0.503299 -0.232945 9.997425 144 136 115
0.144955 -0.695009 9.814256 214 110 73
-0.056361 -0.795516 9.550444 195 62 17
0.541060 -0.268972 10.526952 84 68 43
-0.758277 0.826211 9.888041 231 180 137
-0.126189 -0.714501 9.693275 110 22 0
0.610682 -0.267942 10.670326 67 54 35
0.241747 -0.913307 9.822851 242 138 83
0.423271 0.491665 10.311646 57 53 52
-0.050284 -0.630649 9.629460 30 0 0
0.205766 -1.001729 9.887837 19 5 2
-0.232582 -0.758201 9.672919 139 17 0
0.069693 0.142361 9.642944 66 43 11
0.473053 0.581263 10.231939 255 254 252
0.370812 -0.360818 10.372202 168 148 123
-0.126478 -0.707522 9.590539 110 22 0
-0.375997 -0.937631 9.890260 26 52 69
-0.640410 1.253502 9.687673 236 184 66
0.360229 0.658389 10.046414 254 255 250
0.042530 -1.016567 9.812441 246 255 247
-0.822402 0.265553 9.369166 215 127 79
-0.577201 -0.112954 9.820905 152 138 112
-0.045630 -0.755943 9.553077 169 45 11
0.943856 0.630178 10.355192 203 199 196
-0.377982 -0.857570 9.857070 230 197 180
-0.762317 0.827931 9.866467 128 82 56
0.067717 0.123891 9.728107 64 41 9
0.197710 0.185507 9.815278 189 170 140
-0.778650 -0.894154 10.469160 255 251 240
0.274667 -1.088827 10.262460 165 44 25
-0.549486 0.774977 9.936936 226 161 61
-0.765944 0.196219 9.453212 215 120 72
0.023753 -0.662525 9.778803 210 109 81
-0.145001 -0.634925 9.683284 238 235 226
-0.090165 -0.608604 9.720405 60 5 0
-0.406667 0.233635 9.704977 101 84 58
-0.904334 -0.653172 10.739891 180 172 161
-0.161978 -0.633007 9.656675 231 224 214
-0.744354 0.129604 9.444403 217 124 80
1.019683 0.177316 8.839990 20 12 10
-0.173377 -0.825809 8.468740 241 248 255
-0.119750 0.517381 8.404168 213 158 68
0.371944 3.231485 9.200269 250 245 239
0.158332 0.263003 8.412630 25 0 0
-0.054723 0.255134 8.398196 208 172 120
0.160112 2.406647 9.050305 48 29 14
0.036485 0.694354 8.390198 243 197 109
0.364923 3.230884 9.206127 246 243 236
0.039773 0.699890 8.408179 228 183 100
-1.016387 0.181453 8.779801 253 252 248
0.391661 3.230880 9.195286 12 5 0
0.387372 3.226474 9.192864 102 95 87
0.103039 0.723135 8.424792 138 74 13
1.033278 0.181333 8.851655 86 82 81
0.690898 3.073800 8.904647 33 24 19
-0.191266 -0.754304 8.480124 239 253 254
-0.116081 -1.021925 8.361958 70 1 0
0.354990 3.222463 9.186139 246 243 236
-0.127947 -1.026037 8.379081 134 59 38
1.823551 -2.807255 10.790157 154 101 35
0.183691 2.444247 9.065698 24 15 6
-0.239603 -0.741942 8.494823 219 114 85
0.000045 -0.662145 8.400712 178 52 14
0.037978 0.692067 8.398370 171 133 70
0.151831 0.350253 8.402697 124 78 52
-0.235805 -0.784713 8.494356 240 237 220
-0.052620 0.248803 8.397792 217 186 132
-1.018496 0.176349 8.797485 253 252 248
-0.156208 0.684912 8.409845 241 183 58
-0.165569 -0.775875 8.482855 53 177 203
0.006112 -0.685076 8.395922 182 48 10
-0.221491 -0.752460 8.506099 82 14 0
-0.125313 -0.796874 8.489584 0 43 67
0.160619 0.262801 8.404889 25 0 0
0.366055 3.221781 9.187427 255 255 250
-0.257501 -0.719779 8.509832 249 120 88
0.436009 1.444093 8.753025 255 251 245
-0.501101 2.337744 9.021017 166 150 125
0.395736 3.231280 9.210943 23 16 8
0.697727 3.069690 8.905527 42 27 20
-0.245112 -0.735032 8.505479 231 112 80
0.863680 0.552517 8.937324 64 61 56
0.422634 1.450740 8.736808 255 236 222
-0.116625 -0.752820 8.491794 68 88 97
0.080126 0.408420 8.380980 157 124 93
-0.191273 -0.842876 8.480375 3 8 11
-0.484257 2.377756 8.998958 25 6 0
-0.198106 0.303603 8.394095 149 123 100
-0.204860 2.388398 8.984056 35 18 11
-0.186165 3.077747 8.736987 255 255 248
0.098551 0.719074 8.401139 132 71 8
0.408812 3.224753 9.223199 24 19 13
0.000045 -0.660642 8.397174 178 52 14
-0.128768 -0.791229 8.475999 0 69 91
-0.213436 -0.813336 8.484002 219 225 211
-0.198162 -0.870212 8.460392 124 128 129
0.138818 0.240788 8.410231 74 32 0
0.109658 0.726664 8.416381 146 81 13
-0.382948 2.964886 8.949177 255 251 250
-0.230875 -0.831242 8.469252 132 123 114
-0.195953 -0.872534 8.470625 124 128 129
-0.117626 -0.772716 8.466716 71 200 232
-0.086058 -0.997197 8.376974 54 0 0
-0.232072 -0.790069 8.505440 240 237 220
0.440169 2.415141 9.026440 32 23 14
-0.214393 -0.743509 8.473340 94 33 15
-0.058162 0.254310 8.389607 206 178 138
-0.123906 0.517788 8.401492 213 158 68
-0.250414 -0.820669 8.489972 126 111 108
-0.080147 -1.019599 8.396876 255 163 131
-0.093051 -1.011251 8.378380 75 7 0
-0.119288 -1.028860 8.383478 151 70 51
-0.217647 -0.746151 8.476005 82 14 0
-0.157189 -0.799663 8.466924 1 37 49
-0.116581 0.217825 8.400885 126 117 102
-0.161740 -0.776452 8.475077 41 170 201
-0.184350 -0.808008 8.500432 15 52 60
-0.169240 -0.824401 8.476174 241 255 255
-0.094291 -0.806043 8.479436 21 124 169
-0.102820 -0.768228 8.455321 46 122 146
0.008272 -0.550626 8.448226 73 5 0
-0.127580 -1.025206 8.354991 134 59 38
-0.141735 -0.767627 8.453781 44 184 219
-0.042807 -0.820120 8.441635 74 21 0
-0.196358 -0.788177 8.488179 79 114 120
0.030662 -0.505984 8.461512 195 60 30
0.701407 3.066262 8.894693 9 0 0
0.058332 0.430484 8.385862 174 123 70
-0.217651 -0.808090 8.476185 232 235 224
-0.119566 0.216458 8.405643 126 117 100
0.565441 0.792779 8.707233 26 9 2
0.736551 -2.533709 10.361973 75 224 192
-0.036772 -0.846345 8.451089 219 119 87
0.018339 -0.527576 8.463918 237 130 98
0.840675 3.144835 8.819091 150 91 33
0.717074 3.075224 8.897627 60 24 2
-0.102900 -0.765320 8.463930 46 122 146
0.661069 -2.945248 10.596288 46 179 132
0.081660 0.410257 8.389136 157 124 93
-0.084310 -0.993683 8.376620 87 20 1
-0.193197 -0.795391 8.487382 49 93 102
-0.236820 -0.760841 8.524679 90 18 0
-0.065235 0.181329 8.400438 223 176 146
-0.474231 2.307927 8.986212 65 33 12
-0.203602 0.309007 8.388771 70 47 29
0.140097 0.241541 8.416760 71 27 0
-0.079703 -0.764492 8.484879 255 226 210
-0.022033 -0.814908 8.443838 255 162 123
0.153194 0.356357 8.399205 99 68 50
0.231242 0.931516 8.429003 154 86 0
0.039802 0.435537 8.408664 193 125 44
-0.193475 -0.758202 8.499616 239 253 254
-0.249813 -0.768362 8.508788 67 4 0
-0.125036 0.526511 8.353136 208 161 91
-0.054630 0.194900 8.406618 189 159 133
-0.054932 -0.841661 8.444432 30 0 0
0.145652 -1.054707 8.399800 237 129 103
-0.154751 -0.741424 8.495102 250 217 210
0.742364 3.095566 8.921858 152 109 54
0.046990 -0.552982 8.450110 218 208 198
0.136038 -1.058948 8.395109 222 97 65
-0.233221 -0.794907 8.462215 199 195 186
0.098168 0.720918 8.411578 132 71 8
-0.091150 -0.868227 8.444267 29 33 42
-0.182471 0.673347 8.411700 228 168 82
0.615280 3.166069 8.877481 44 23 4
-0.243623 -0.741359 8.509955 195 81 54
-0.138423 -0.792805 8.488036 0 29 42
0.188910 -0.884928 8.500147 208 195 179
-0.171919 -0.827308 8.483821 241 248 255
-0.203849 -0.869847 8.489384 131 135 134
-0.192686 -0.924974 8.456577 26 0 0
-0.065535 -0.855848 8.432158 18 0 0
-0.226393 1.391836 8.589555 115 45 20
0.424236 1.442556 8.754950 232 206 193
-0.066574 0.258100 8.373427 195 171 147
-0.239012 -0.755766 8.477368 62 0 0
0.246497 -0.851255 8.519816 57 154 171
-0.067397 -0.803450 8.464339 0 24 32
-0.629275 1.372898 8.733998 255 250 248
-0.236225 -0.788289 8.504235 240 237 220
0.029502 -0.501402 8.479757 198 63 33
-0.065543 -0.845376 8.433359 32 23 28
1.831786 -2.995037 10.843266 205 155 86
-0.119072 -1.007264 8.355728 64 20 7
-0.055044 -0.818821 8.462216 227 221 205
0.139512 0.714388 8.380795 210 142 69
-0.196643 0.305061 8.393846 152 121 92
-0.066005 -0.798810 8.452874 0 24 32
0.050872 0.407129 8.355831 129 61 0
-0.088185 -0.772678 8.461134 35 63 64
-0.235377 -0.754978 8.478905 78 21 2
0.144011 -0.848106 8.467104 95 19 0
-0.199341 -0.929201 8.448070 189 95 67
0.160383 -1.055291 8.406948 94 13 0
0.029213 -0.637754 8.402829 148 25 0
0.165750 -1.038398 8.412476 72 7 0
-0.289149 -0.880342 8.502857 165 57 45
-0.296171 -0.802711 8.515288 149 54 50
-0.295980 -0.798936 8.515853 142 52 51
1.862184 -3.012490 10.943130 210 170 118
-0.156993 -0.802326 8.456322 21 45 55
-0.185844 3.119973 8.840507 255 255 248
0.922279 -2.628562 10.379888 16 150 97
-0.200843 -0.922052 8.418840 83 17 0
-0.208781 -0.828158 8.490078 218 221 210
0.976387 3.485236 9.791823 255 254 240
-0.000026 -0.560161 8.477259 68 1 0
-0.012850 -0.561298 8.452712 74 0 0
0.932214 -2.081980 9.852577 225 62 67
0.060837 0.427285 8.410183 172 113 57
0.040608 0.698523 8.406773 228 183 100
0.594036 0.773030 8.757355 255 254 251
0.018130 0.425008 8.355987 185 110 17
-0.134043 -1.014674 8.389739 55 12 0
-0.199968 0.303402 8.380531 149 123 100
-0.200550 0.653708 8.404241 177 125 75
-0.110104 -0.771121 8.454706 88 211 242
-0.295181 -0.815688 8.503535 134 66 63
0.594887 -3.930659 11.461980 132 111 80
0.241719 0.940050 8.437187 174 107 3
-0.253117 -0.763799 8.481738 124 45 28
0.217582 -3.117279 10.840369 83 34 0
-0.379852 2.962812 8.965380 255 254 253
0.130923 -1.022512 8.388895 245 134 91
1.479316 -2.478365 10.460428 175 91 44
-0.098167 -0.765133 8.488362 19 67 79
-0.236318 -0.759838 8.508501 78 21 2
-0.206566 -0.830193 8.504232 169 171 160
0.859851 -3.573671 11.031735 233 145 81
0.934764 -2.079259 9.835600 251 62 68
0.585833 0.746502 8.713919 195 176 162
-0.243626 -0.754853 8.471070 119 38 19
0.055749 0.424426 8.403946 178 110 45
-0.223022 -0.978279 8.468107 210 72 43
-0.121217 0.559373 8.383437 139 113 88
0.024379 -0.649412 8.444940 152 19 0
-0.169779 -0.765200 8.508456 1 87 110
0.003066 -0.531056 8.434136 250 151 122
1.380569 -3.413842 10.982303 229 124 41
-0.065235 0.185548 8.400428 223 176 146
0.174370 -1.037708 8.422753 64 6 0
-0.283153 -0.885891 8.514236 189 69 53
-0.280588 -0.891011 8.513869 196 67 46
-0.112189 0.512549 8.381917 212 151 60
-0.739460 -0.456698 8.665227 210 196 161
-0.139971 -0.793207 8.492599 0 29 42
0.000041 -0.682429 8.379584 192 66 25
1.850892 -3.001994 10.895886 218 163 96
0.150128 -0.860852 8.470530 115 42 9
-0.844911 1.481275 8.770199 20 18 21
0.085069 0.412047 8.393697 164 134 110
-0.586477 -0.461513 8.627574 177 159 139
-0.127589 0.520814 8.401817 210 162 88
-0.245171 -0.792616 8.478456 219 205 196
0.243733 -0.897844 8.512954 244 252 254
0.142811 -1.054389 8.402710 237 129 103
0.733521 -3.104463 10.736388 25 156 116
0.018675 -0.630954 8.384748 230 120 71
0.406190 0.796243 8.509847 175 100 61
1.402838 -3.462751 11.052209 226 129 34
0.799933 0.517601 8.859170 36 8 4
-0.200996 -0.912300 8.464254 30 1 0
-0.078931 -1.019596 8.396636 255 163 131
0.859701 0.552139 8.921236 73 70 65
0.192266 -0.887580 8.519135 208 195 179
0.215019 -0.932631 8.488746 123 128 121
-0.209424 -0.828293 8.500428 218 221 210
0.584518 0.765837 8.728280 255 249 240
-0.066088 -0.578506 8.467349 73 0 0
0.221455 -0.859586 8.507656 39 73 72
0.144710 -1.056787 8.407576 237 129 103
0.198578 -0.970887 8.466669 126 52 39
1.764425 -3.028368 10.852855 255 252 238
1.004309 -3.967933 11.410438 143 100 47
-0.115363 0.225140 8.400641 111 102 87
0.163921 -0.705650 8.394744 205 67 21
-0.088612 -0.137541 8.753593 169 70 28
0.221579 -0.819173 8.507871 243 230 213
0.304090 -0.861648 8.545300 13 117 144
0.188074 -0.938913 8.469306 30 8 0
0.962789 -2.033602 9.788597 242 18 16
0.022091 -0.504553 8.459778 204 76 39
-0.157079 -0.747767 8.533797 250 217 210
0.220567 -0.858103 8.498556 39 73 72
0.086400 0.181517 8.441925 232 159 57
0.117065 0.135886 8.461819 170 102 27
0.536476 0.804195 8.683457 26 8 4
0.725826 -2.524082 10.338488 95 205 176
0.171136 -0.839497 8.495730 255 219 193
0.203024 -0.838627 8.567122 255 235 213
0.022013 -0.650713 8.438607 176 33 3
0.991489 -2.041198 9.857081 218 59 63
0.215584 -0.824906 8.506334 244 237 219
-0.065590 -0.843869 8.439493 43 43 51
-0.229221 -0.977081 8.427171 201 82 60
0.554505 -3.018508 10.666211 32 169 127
0.736104 -3.598225 11.037169 223 130 61
0.400168 0.033845 8.662573 173 148 117
-0.152939 1.396110 8.599442 255 251 236
1.191485 -3.495657 11.006626 205 115 39
0.250616 0.658473 8.429652 135 95 70
-0.199465 -0.792405 8.447289 164 191 184
0.845177 -3.526106 10.967099 116 34 0
-0.397159 0.119323 8.172168 228 139 97
-0.155681 -0.772718 8.465480 44 174 208
-0.103309 0.183704 8.419671 37 27 18
0.228289 -0.854881 8.542068 0 49 53
-0.285851 -0.891283 8.488231 187 64 46
0.036690 -0.554067 8.442353 221 197 187
-0.139199 0.482420 8.369172 147 105 65
0.264384 -0.850086 8.539683 67 211 235
0.381718 0.760423 8.533218 239 130 71
0.614134 -3.779707 11.297433 255 255 196
-0.632975 1.376978 8.721174 255 245 237
0.131601 -1.073846 8.433442 201 82 52
-0.295015 -0.866649 8.496369 117 57 47
0.224961 -0.897828 8.515889 160 165 158
0.930742 -2.078640 9.833711 225 62 67
0.121861 -0.627516 8.422883 255 162 110
0.250281 0.116411 8.476604 76 51 21
0.337438 -2.372419 10.094761 51 223 199
0.982071 -3.974114 11.358125 254 212 110
0.226266 -0.619694 8.467499 135 55 22
0.084239 0.187527 8.469306 232 159 57
-0.067166 -0.577524 8.453423 73 0 0
0.071550 0.171563 8.432917 229 163 67
-0.426195 0.173235 8.185948 233 136 83
0.242250 -0.899149 8.512620 240 249 248
0.231600 -0.895394 8.506113 232 238 234
-0.002285 -0.662676 8.389345 178 52 14
-0.420362 0.083934 8.200300 126 38 0
0.152448 -0.684083 8.365393 255 111 75
0.332657 -0.848115 8.555319 57 56 61
0.191759 -0.847327 8.538109 252 230 206
0.586579 -0.206600 9.113096 163 150 134
0.341331 -0.896954 8.553282 96 132 148
0.285053 -0.868035 8.518162 13 35 59
0.278998 -0.866381 8.550540 0 32 65
0.213811 0.109396 8.473720 171 144 114
-0.329419 -0.103974 8.436276 143 133 106
-0.385768 0.083538 8.206800 213 120 79
0.187972 -0.582732 8.455912 59 0 0
1.300872 -3.792410 11.221868 193 129 55
0.237992 -0.021501 8.561954 173 156 136
-0.199937 -0.870047 8.473414 82 84 81
0.296802 -0.863224 8.547470 0 64 93
-0.523108 0.106003 8.145406 172 77 21
0.061061 -0.553432 8.449030 230 227 218
0.194649 -0.881933 8.509758 239 223 207
0.453107 -0.194418 8.844844 96 72 36
0.136919 -0.564064 8.435651 255 233 227
1.096393 0.225118 9.330701 37 32 28
1.089902 0.192635 9.336906 4 0 0
0.740596 3.229968 9.381845 30 15 10
0.759632 3.226192 9.410979 39 17 4
0.932016 3.308852 9.416129 190 159 130
0.049464 -0.959531 8.655384 148 64 38
0.555344 3.046770 9.473893 249 249 247
0.257386 -0.687590 8.681587 178 49 10
0.929640 3.306999 9.424279 190 159 130
-0.696009 -0.832242 9.462238 14 17 10
0.579873 3.089248 9.483659 255 254 253
-0.695552 -0.836935 9.431705 14 17 10
0.736217 3.230633 9.394938 26 15 13
0.170068 -0.599454 8.708928 81 0 0
0.012599 -0.787088 8.705885 255 231 216
0.263695 -0.709716 8.679580 189 53 13
-0.239352 0.244549 8.357132 101 42 8
-0.015112 -0.762137 8.718388 227 108 76
0.157239 -1.062075 8.636859 67 0 0
-0.002411 -0.782440 8.730788 70 0 0
0.537669 3.042062 9.462105 19 15 12
0.179938 -1.056345 8.647647 158 74 50
-0.015098 -0.845846 8.703540 105 97 94
0.135981 -0.791138 8.698991 13 80 86
-0.015088 -0.762445 8.704540 227 108 76
0.764042 3.219122 9.395883 27 9 0
-0.302620 3.045565 9.185297 255 255 253
0.179188 -1.038507 8.653008 73 14 0
0.376089 3.372584 9.657069 4 0 0
0.935929 3.327759 9.407622 127 81 31
-0.344439 -3.066178 10.765965 122 69 25
0.007575 -0.779035 8.715935 95 37 15
0.452686 2.479308 9.361016 193 137 80
-0.163101 2.395537 9.160119 86 43 11
0.683324 3.306844 9.367572 19 15 6
0.043994 -0.900697 8.696340 120 124 125
0.226596 -0.835464 8.706810 255 146 95
0.181059 -1.055637 8.641518 158 74 50
-0.135893 2.455481 9.192451 25 7 0
-0.294432 3.044536 9.180183 114 110 107
0.139011 -0.794915 8.698143 58 155 164
-0.562774 1.264242 8.762089 126 97 65
0.057273 -0.960122 8.659241 134 57 31
-0.613486 -0.004908 9.022523 157 153 152
0.030237 -0.786503 8.710017 255 255 253
0.264749 -0.592261 8.716051 83 26 7
0.550207 3.054900 9.482982 84 83 81
-0.051905 -0.913779 8.687743 191 65 42
-0.013289 -0.754478 8.713869 251 128 94
-0.056584 -0.902592 8.673231 173 66 50
0.171375 -0.602129 8.690935 118 25 0
-0.054476 -0.907951 8.682513 182 65 47
0.062883 -0.860892 8.712902 238 252 255
-0.305222 0.317358 8.439922 135 82 51
0.106863 -0.819430 8.694846 0 53 74
-0.060476 -0.838480 8.714757 163 69 61
0.003037 -0.780269 8.713603 70 0 0
0.575867 1.433328 8.972587 75 48 53
-0.020619 -0.788183 8.681524 99 18 0
0.170217 -0.835725 8.720572 31 61 69
0.057351 -0.770535 8.696136 255 233 229
-0.048667 -0.936844 8.679709 185 65 40
0.012623 -0.775723 8.720476 81 17 0
0.022689 -0.771356 8.712155 110 48 25
-0.512675 -0.682709 9.349859 255 254 243
0.084666 -0.799892 8.712822 47 195 221
-0.036454 -0.871512 8.720095 12 3 4
-0.060220 -0.897041 8.656607 157 65 54
0.022583 -0.842236 8.711127 201 213 209
0.135837 -0.810152 8.698500 85 198 212
0.075567 -0.767751 8.718398 241 197 188
-0.060121 -0.901411 8.662494 162 56 42
0.229964 -0.582650 8.716163 73 7 0
0.798637 3.236330 9.390141 138 105 64
0.055867 -2.991220 10.679998 32 170 121
0.195098 -1.024143 8.660723 89 0 0
0.075664 -0.802630 8.718184 46 186 211
0.608964 -3.167124 10.987872 71 202 162
0.066489 -0.855207 8.713485 239 255 255
0.140279 -1.066681 8.658802 81 16 0
-0.048869 -0.874779 8.680074 15 0 0
0.193821 -1.019355 8.652716 89 0 0
-0.006180 -0.815656 8.710549 218 208 196
0.026115 -1.009679 8.659755 206 77 46
0.018877 -0.846843 8.689639 187 190 183
0.182740 -0.848323 8.716763 238 235 228
0.143439 -0.830480 8.710415 39 143 170
0.173825 -0.598157 8.707854 78 0 0
0.182792 -1.031279 8.640154 96 31 13
-0.006027 -0.814828 8.694727 218 208 196
0.111996 -0.781929 8.719620 58 127 142
0.041059 -0.819744 8.699145 31 78 86
-0.067629 -0.828885 8.701444 150 49 39
0.188886 0.499532 8.702807 143 74 0
0.090734 -0.820188 8.719570 0 50 62
0.543049 3.049974 9.454904 39 38 36
0.132235 -0.806090 8.716873 93 211 225
0.025212 -0.819985 8.716703 235 255 253
0.025161 -0.856568 8.701803 200 202 197
0.201511 -0.854498 8.711143 83 22 0
0.614370 -3.148581 10.917001 79 210 168
0.257566 -0.593053 8.728962 82 24 4
0.036783 -0.787307 8.740547 251 247 244
0.620850 -3.180568 11.030954 79 210 168
0.366515 -2.677994 10.570855 17 158 116
0.045331 -0.778818 8.706165 248 255 255
0.348711 -2.557377 10.496851 81 229 195
0.037851 -0.809077 8.699317 122 159 165
0.264969 -0.528499 8.725486 194 61 28
-0.562759 1.264995 8.762036 126 97 65
0.150721 -0.806230 8.694015 30 70 62
0.714323 -3.794515 11.404545 172 134 89
-0.304776 0.317724 8.441819 153 89 54
0.139250 -0.801787 8.722935 58 155 164
0.848117 -3.346982 11.190965 119 39 0
0.082471 -0.957559 8.688365 34 0 0
0.166295 -0.939041 8.723040 124 51 32
0.045082 -0.871089 8.684622 49 53 56
0.203786 0.263178 8.692496 216 181 141
0.004093 -3.258005 10.836401 48 181 150
0.149057 -1.069982 8.666266 116 41 22
0.866566 -3.408166 11.250381 219 136 44
0.105188 -0.826111 8.671722 0 27 46
0.121113 -0.803904 8.723242 56 198 218
0.060446 -0.774310 8.716589 255 248 248
0.183078 -0.847760 8.735204 238 235 228
0.180427 -0.871170 8.705461 29 17 21
0.089345 -0.839946 8.736492 0 16 30
0.432038 -2.572633 10.544353 70 232 175
0.280304 -0.578039 8.729246 211 187 177
0.489861 -2.650333 10.629523 32 169 125
0.643524 -3.761389 11.383376 240 255 255
1.170744 -3.020645 11.226068 230 162 53
-0.400575 -0.494813 9.080603 163 147 124
0.069217 -0.857690 8.704645 242 255 255
0.732916 -3.410381 11.182582 202 105 36
0.183208 -0.839745 8.716096 227 223 212
0.678290 3.330034 9.297343 255 253 248
0.129032 -3.586063 11.071976 231 125 39
0.577252 3.096827 9.500052 246 242 241
0.441947 -2.566807 10.567059 75 237 188
-0.611184 1.394868 8.802649 255 249 255
0.044128 -0.828004 8.697436 41 74 81
1.190342 -3.039601 11.264989 211 168 89
0.048315 -0.825554 8.701330 48 96 106
0.093777 -0.818735 8.717104 0 48 61
0.030260 -0.890972 8.684755 97 96 94
-0.341079 1.689787 8.898433 67 18 0
0.379086 0.052563 8.879774 40 13 2
0.408159 -1.066510 8.713927 70 0 0
0.188187 -3.095387 10.828755 38 162 136
0.905485 -3.404949 11.303881 74 80 34
0.370753 0.091223 8.836175 179 150 110
0.204180 0.194933 8.709114 232 179 147
0.448544 -2.551410 10.549523 71 236 193
0.201387 0.267730 8.696438 216 181 141
0.681770 -2.131702 10.218092 211 62 68
0.724009 -2.081092 10.188025 242 31 38
0.317154 0.445526 8.698240 198 142 85
0.167820 -0.942645 8.743329 181 95 72
0.163132 -3.098305 10.791901 39 164 148
0.464087 -2.534111 10.550111 99 230 199
0.457580 -2.542566 10.553702 82 233 198
0.361161 0.098751 8.813766 162 130 89
0.389456 -1.088645 8.714415 229 110 80
0.326524 0.184045 8.771660 229 156 53
0.066554 -0.826314 8.713941 0 46 60
-0.084049 0.219406 8.356441 231 142 100
0.333836 -2.973701 10.785839 49 179 141
0.284382 -2.998546 10.796285 105 239 180
-0.167257 0.111329 8.378771 172 75 22
0.356771 -2.961360 10.755166 108 241 184
0.996290 2.049237 10.822993 58 52 56
1.007363 2.054104 10.840449 43 39 40
-0.357516 2.890362 10.594396 147 134 115
-0.354764 2.891176 10.602782 147 134 115
-0.331493 2.870336 10.561382 94 65 35
-0.352324 2.889785 10.595678 80 60 33
-0.363083 2.900079 10.618999 235 229 213
0.016715 1.010757 9.481522 132 98 53
0.242735 -0.694953 9.344296 150 31 0
0.046873 1.309851 12.251254 25 8 0
0.024459 1.018402 9.453266 125 80 13
0.105818 0.894163 9.470922 202 166 130
-0.335268 2.875479 10.563873 71 38 3
0.100137 0.895897 9.459859 102 76 61
0.028994 0.991096 9.478059 138 110 73
0.543128 3.293871 10.571038 202 199 194
0.036954 0.973918 9.480875 22 13 8
0.024983 0.183442 9.443034 24 14 5
-0.333503 2.850215 10.561893 219 197 174
0.029093 0.985850 9.463712 138 110 73
0.291417 -0.838783 9.330832 175 70 48
0.075647 0.931705 9.460316 33 18 21
0.363990 2.424603 12.259618 107 59 21
0.110468 0.900864 9.475670 231 187 126
0.358825 -0.913791 9.326201 227 247 255
0.301097 -0.834599 9.342371 138 46 23
0.276563 -0.783271 9.319339 241 123 83
0.445489 -1.179414 9.274258 184 70 43
0.343640 -0.827304 9.347972 252 255 255
0.086362 0.917066 9.460759 29 13 14
0.362499 -0.913897 9.319990 237 255 255
0.288365 -0.797248 9.324959 241 121 86
0.065405 0.948150 9.468053 28 16 20
0.323512 -0.821941 9.321139 111 41 16
0.259119 -0.763596 9.351499 212 83 51
0.307026 -0.822513 9.321362 100 35 15
0.290986 -0.807457 9.324837 237 114 83
0.303916 -0.875410 9.307935 239 239 227
0.263037 -0.770098 9.336256 228 101 66
0.352535 -0.880435 9.317743 11 63 76
-6.068099 -4.536414 4.673908 61 152 111
-4.912246 -2.449466 3.035441 70 230 194
2.064862 8.184256 6.018892 18 75 92
-25.603632 -18.316843 81.402367 254 255 251
-21.693714 -23.880369 97.333443 38 34 33
-18.619072 -11.724184 53.699097 155 157 154
-16.349310 -9.342527 44.436039 154 156 153
-19.938263 -21.016043 88.477058 20 17 12
-18.058924 -10.849772 50.856888 144 146 143
-22.420160 -41.220554 94.848717 85 83 84
-14.521283 -26.605837 83.227074 236 233 228
-9.463819 -6.125577 29.641224 160 162 159
-9.628293 -6.862233 31.950323 124 99 68
-9.613375 -6.545205 30.953695 253 253 243
-9.868823 -7.840396 36.411125 36 18 0
-6.744726 -4.936115 23.292015 36 19 3
-9.129205 -8.387120 38.997890 52 38 25
-9.303394 -8.655062 39.043636 119 77 52
-9.694462 -7.081661 32.573277 129 105 71
-9.288068 -8.483029 38.462238 136 82 48
-9.708330 -7.120193 32.717613 129 105 71
-9.407264 -9.207936 41.195744 28 14 5
-8.985514 -7.328025 33.998600 39 8 0
-9.313722 -8.744915 39.296043 44 19 0
-6.626186 -5.317368 24.984072 39 8 0
-9.267241 -8.737634 39.242523 44 19 0
-6.821826 -5.985622 28.383251 16 8 0
-11.159065 -37.996941 66.179604 255 255 253
-11.332683 -39.274265 68.315483 9 5 4
-5.714849 -7.836956 36.770374 30 16 5
-6.790069 -5.774217 27.718987 87 50 6
-5.623759 -7.321483 35.808262 106 71 49
-5.661015 -7.845148 36.927814 35 15 4
-3.981283 -12.528168 22.858486 127 123 122
-6.829183 -5.910667 28.061609 107 86 67
-6.834240 -6.046148 28.593126 35 28 20
-5.915077 -6.753139 32.919041 51 23 0
-11.376174 -112.321274 99.731468 153 93 23
-5.613338 -4.683136 24.181889 15 7 0
-5.823821 -5.124283 25.124956 32 18 9
-5.305835 -31.067272 95.611397 28 19 12
-4.882520 -6.015371 30.274534 81 74 66
-4.640453 -6.355523 31.972303 56 40 24
-4.631058 -28.021105 85.562798 137 118 103
-4.670125 -27.358738 82.984489 255 234 220
-6.043845 -5.098721 25.982683 26 16 7
-3.422331 -83.990059 89.757027 127 176 172
-3.350174 -21.266996 51.592144 94 58 46
-19.201426 -37.334412 87.633835 95 61 26
-19.092613 -37.271725 87.947937 119 68 15
-18.878042 -38.957878 91.948425 255 195 99
-19.685932 -41.554630 97.301437 242 192 71
-18.858200 -39.222088 93.215820 212 147 63
-19.191065 -38.414261 89.776932 98 48 0
-19.190910 -39.206944 91.538834 255 214 107
-19.437340 -38.948719 90.984322 98 48 0
-8.654455 -39.710545 66.663422 41 40 9
-3.793483 -12.891377 36.647766 9 0 0
-8.710487 -58.887856 96.770950 167 151 118
4.354712 -27.638113 26.125792 32 24 5
-7.038716 -13.902158 29.830761 59 41 17
-2.863078 -17.270645 32.448570 163 146 120
3.957889 -18.199078 70.858093 36 5 0
-7.603274 -11.838939 27.334206 114 40 0
-8.383893 -10.190152 24.299753 148 79 12
-7.584713 -12.226397 27.220034 219 152 47
-6.975704 -13.740026 29.759060 69 40 8
3.594091 -17.478479 68.849113 22 13 8
-3.367585 -8.144816 46.920078 31 13 1
-7.314052 -13.967375 29.220940 255 253 246
-7.499088 -13.513198 28.408672 142 108 63
-1.852491 -11.624582 59.267227 255 251 250
-6.949634 -13.744773 30.310221 110 66 29
-3.699815 -8.222882 45.239651 249 242 224
-7.285361 -12.224268 28.185566 142 86 35
-2.932110 -17.339268 32.383713 102 85 55
-7.358249 -12.320568 28.480597 142 86 35
-2.977720 -17.268091 32.217812 92 75 45
-2.472754 -21.290203 30.561596 246 156 130
-7.302097 -13.818686 28.997541 255 253 239
-7.537779 -11.679082 27.688622 77 42 4
-7.470097 -13.603301 28.511484 104 75 31
-2.812217 -16.124022 33.806381 130 90 78
-5.669044 -19.547625 35.051800 149 81 62
-2.173508 -21.491713 31.290657 254 154 104
-3.323400 -8.173134 47.145336 26 11 4
-1.769167 -11.664961 59.375599 255 255 253
-7.296519 -14.003618 29.164835 255 255 250
-2.363617 -18.501638 33.417873 96 77 45
-2.836548 -16.042875 33.733528 141 71 37
-2.150437 -21.488802 31.409342 254 157 114
-3.021402 -20.676065 30.058353 19 93 92
-1.734238 -11.906947 60.164974 143 139 138
-6.508028 -17.026003 32.825802 254 255 245
-7.245593 -13.696606 28.798965 255 239 217
-2.106821 -21.433680 31.317535 250 145 113
-2.412659 -18.445610 33.341244 88 69 37
-7.530327 -11.662858 27.605324 126 87 44
-7.537970 -11.630127 27.586821 77 42 4
-7.359013 -12.259160 28.371826 117 72 30
-7.313838 -13.820368 28.956900 249 239 227
-2.613230 -16.357296 34.411076 95 35 11
-2.446817 -21.204779 30.668745 252 161 108
-8.198506 -10.192303 24.260231 235 178 62
-2.151483 -21.447502 31.260479 251 150 106
-7.869145 -12.003683 26.812895 113 57 10
-2.481595 -21.238583 30.434013 239 147 126
-5.380286 -18.214289 34.334503 134 79 48
-3.492120 -14.182799 31.897224 226 174 150
-2.435108 -21.127190 30.427700 254 165 121
-3.218341 -20.043810 30.575558 88 2 0
-7.793171 -11.817403 26.471716 89 32 0
-7.969086 -11.555799 25.966612 137 108 52
-2.345849 -21.415339 30.364605 157 33 31
-5.909480 -18.936131 34.324940 255 243 222
-2.453876 -21.084249 30.412474 249 166 122
-6.419840 -17.394617 32.962959 220 188 165
-7.353257 -13.178928 28.354773 253 197 78
-7.531213 -12.064298 27.108438 217 145 61
-2.774416 -16.003712 33.599648 130 90 78
-2.823718 -16.093313 33.767120 130 90 78
-3.018272 -20.656050 30.000858 19 93 92
-7.529489 -11.774986 27.871140 116 105 85
15.801899 -43.956486 47.690563 166 178 132
-2.769227 -16.033770 33.870022 219 124 80
-2.693024 -21.008314 30.383350 17 11 0
-2.795478 -16.024092 33.848782 229 132 89
-3.167193 -20.877628 30.365986 245 244 226
-5.879052 -18.169886 33.215145 133 72 44
-2.319640 -10.788081 56.068386 250 249 245
-7.485146 -11.963851 27.699512 113 54 14
-6.942078 -13.973076 30.373655 255 249 232
-3.003482 -20.894102 30.426998 40 90 78
-6.265710 -16.773008 32.487328 61 44 26
-2.704926 -21.012468 30.341379 61 110 107
-7.474073 -11.819223 27.533106 223 190 159
-2.782701 -20.410702 31.066067 144 60 26
-7.317144 -13.268786 28.423006 252 195 82
-3.136568 -20.816206 30.305552 255 249 225
-2.794468 -20.416651 31.087997 144 60 26
-3.006750 -15.433232 33.119038 128 52 18
-6.413743 -16.813677 32.464119 253 253 243
-2.765902 -21.010761 30.297632 86 165 169
-2.955588 -15.835910 33.326164 99 40 6
-7.447783 -12.057794 27.977095 255 236 205
-3.154393 -20.921839 30.115995 67 87 88
16.214001 -44.395634 48.202988 151 57 0
-2.694518 -16.105083 34.178741 244 147 102
-3.311959 -20.896048 29.873064 171 165 153
-2.965101 -20.801659 30.308361 42 104 93
-2.802354 -20.531240 31.072752 93 19 0
-2.795145 -20.557838 31.039869 184 102 62
-2.893406 -15.470816 33.178246 147 62 21
-6.328606 -16.249779 31.916191 124 118 96
-2.940258 -21.174921 30.326200 9 31 42
-2.686107 -15.005310 33.119244 244 140 87
-7.547228 -11.861132 27.411306 109 36 0
-2.852295 -20.392130 29.290976 8 36 50
-5.490907 -17.860172 34.259590 75 17 0
-3.456367 -15.080173 32.048355 198 151 123
-5.751299 -18.210289 33.683601 145 56 12
-3.166617 -20.917080 29.877151 209 231 228
-3.133554 -14.461419 32.908417 137 102 96
-2.625674 -15.099526 33.329468 255 161 111
-7.251037 -13.222202 28.376425 245 187 77
-3.124793 -21.009901 30.272720 22 52 54
-6.391953 -17.016220 32.794056 255 255 237
-7.227810 -13.244997 28.433125 248 186 83
-2.768277 -21.152922 30.365194 58 99 101
-3.450221 -19.817337 30.425020 75 23 1
-3.555009 -14.773612 31.737896 187 157 147
9.054081 -39.669628 45.387093 165 43 58
-6.300325 -16.343651 32.198288 97 91 67
-3.535692 -14.384960 32.042336 63 5 0
-2.737485 -20.614609 31.156424 114 14 0
-3.289871 -20.884245 30.068939 255 250 244
-3.329067 -21.017307 29.961515 106 102 91
-3.141655 -21.083445 30.289381 12 46 48
-3.148141 -20.926870 30.104763 67 87 88
-3.489007 -21.022722 29.535051 63 7 0
