ply
format ascii 1.0
element vertex 207
property float x
property float y
property float z
property uchar red
property uchar green
property uchar blue
end_header
2.02603435516357422 1.27627420425415039 7.792205810546875 168 77 30
1.75709104537963867 0.0521089434623718262 7.73439693450927734 201 70 30
1.64205348491668701 1.02410948276519775 7.82589340209960938 255 252 251
1.75213766098022461 0.132448300719261169 7.74043035507202148 169 42 9
1.78894710540771484 0.0883154571056365967 7.72069358825683594 240 255 255
2.39484286308288574 0.173393130302429199 7.86567592620849609 29 30 23
1.69305312633514404 0.139304623007774353 8.16100978851318359 22 24 19
1.69305312633514404 0.139304623007774353 8.16100978851318359 22 24 19
2.17890596389770508 1.61576604843139648 7.80857992172241211 254 255 253
1.66794776916503906 0.335203647613525391 7.80985021591186523 171 142 112
2.08155441284179688 1.72025346755981445 7.87929725646972656 252 254 252
2.1971580982208252 1.68795680999755859 7.75381374359130859 24 14 11
1.76141703128814697 0.141692295670509338 7.73316001892089844 255 130 91
1.75356578826904297 -0.0394708961248397827 7.69580554962158203 128 7 0
1.83478188514709473 1.4271695613861084 7.84206628799438477 31 19 11
1.9089735746383667 0.628677964210510254 7.63449859619140625 43 36 38
1.85857725143432617 0.483487963676452637 7.67926549911499023 213 113 54
1.76613283157348633 -0.00853940751403570175 7.70408391952514648 156 55 31
1.90323150157928467 0.669180214405059814 7.63278055191040039 46 40 40
1.77440989017486572 1.65029621124267578 7.83918046951293945 12 9 6
1.85831558704376221 0.546633899211883545 7.64935398101806641 196 141 88
2.5303337574005127 -0.725287854671478271 8.63456821441650391 108 41 8
2.32192564010620117 -0.811716079711914062 8.68300342559814453 219 127 24
2.56134033203125 -0.853629827499389648 8.73287582397460938 247 255 252
2.2163856029510498 -0.628841102123260498 8.573699951171875 26 158 114
2.23000836372375488 -0.316812068223953247 8.23712921142578125 51 0 0
1.77301287651062012 1.23938608169555664 7.82377719879150391 72 35 17
2.6153712272644043 -0.543453991413116455 8.54248714447021484 219 129 25
1.79270541667938232 1.47968339920043945 7.86809682846069336 19 14 8
1.79283881187438965 1.47967171669006348 7.86646080017089844 19 14 8
1.85679388046264648 0.765339910984039307 7.63377666473388672 255 220 80
1.87121784687042236 0.0146523714065551758 7.68088245391845703 253 131 77
2.11707544326782227 1.06184744834899902 7.72459030151367188 255 254 255
2.16445779800415039 0.459328770637512207 7.86080503463745117 21 13 10
2.41013979911804199 -0.399030596017837524 8.37415599822998047 44 255 246
1.8467707633972168 0.620630443096160889 7.64215707778930664 196 125 35
1.84732484817504883 0.620688974857330322 7.64143466949462891 196 125 35
1.59784793853759766 0.256450623273849487 7.84940147399902344 93 78 55
2.16362857818603516 -0.481143981218338013 8.44713306427001953 39 255 225
1.6143573522567749 1.0485004186630249 7.82378005981445312 252 255 255
1.6143573522567749 1.0485004186630249 7.82378005981445312 252 255 255
1.74339199066162109 0.719561994075775146 7.66240072250366211 220 158 51
1.94914603233337402 0.538783013820648193 7.64275884628295898 19 16 9
1.94848668575286865 0.539220988750457764 7.64800405502319336 19 16 9
1.88623142242431641 0.532476484775543213 7.64516305923461914 225 153 42
2.07096028327941895 0.422033041715621948 7.78792953491210938 176 147 113
2.02085256576538086 0.0950703471899032593 7.76224374771118164 250 144 89
1.81806445121765137 0.0730568990111351013 7.71878337860107422 1 26 33
2.29983878135681152 -0.477701693773269653 8.42674541473388672 62 236 188
2.47757744789123535 -0.552417278289794922 8.48346138000488281 102 231 149
2.48631024360656738 -0.609063029289245605 8.54832935333251953 37 167 157
1.66235804557800293 1.0240408182144165 7.78034114837646484 106 45 17
1.8249891996383667 0.818655669689178467 7.62612724304199219 251 190 59
2.003814697265625 0.501597821712493896 7.68474674224853516 155 131 92
2.10767555236816406 0.387547165155410767 7.85680198669433594 181 150 119
2.08555030822753906 0.328363716602325439 7.88221502304077148 169 143 108
2.42746138572692871 -0.546987593173980713 8.48982715606689453 44 169 155
2.42746138572692871 -0.546987593173980713 8.48982715606689453 44 169 155
2.34894704818725586 -0.562895894050598145 8.501800537109375 38 165 154
2.26939940452575684 -0.58891826868057251 8.53437232971191406 41 171 147
2.26986813545227051 -0.587701082229614258 8.52475547790527344 41 171 147
2.48170876502990723 -0.722771346569061279 8.63992977142333984 37 152 139
2.25818538665771484 1.72546577453613281 7.70989561080932617 161 92 14
2.09619522094726562 1.00521743297576904 7.73807239532470703 49 31 47
1.91490304470062256 0.562898457050323486 7.64461135864257812 167 96 19
1.77640914916992188 0.462223470211029053 7.70082187652587891 167 143 108
1.79372572898864746 0.293267011642456055 7.80355215072631836 63 52 34
1.89192891120910645 0.219644799828529358 7.68627405166625977 208 55 41
2.62724661827087402 -0.496503829956054688 8.51046657562255859 144 60 13
2.54203438758850098 -0.693312585353851318 8.61523914337158203 40 156 145
1.78008711338043213 0.88178563117980957 7.64828872680664062 186 121 39
1.95714759826660156 0.769468843936920166 7.62746095657348633 212 141 54
1.94360685348510742 0.458667665719985962 7.69044017791748047 72 58 32
1.96274340152740479 0.00143240415491163731 7.69905376434326172 210 65 32
1.96274340152740479 0.00143240415491163731 7.69905376434326172 210 65 32
2.40777778625488281 -0.601812362670898438 8.52578067779541016 38 171 150
1.72076296806335449 1.38679730892181396 7.88717031478881836 255 253 250
2.24121618270874023 0.675594449043273926 7.82622623443603516 24 17 11
2.27338552474975586 0.668093621730804443 7.83838796615600586 255 253 250
1.77099180221557617 0.421679139137268066 7.74136066436767578 152 133 103
1.80917215347290039 0.0958400517702102661 7.72908973693847656 11 27 48
2.3029022216796875 -0.418492048978805542 8.30879592895507812 255 32 27
1.7337195873260498 1.42852568626403809 7.88097810745239258 24 13 9
1.8826904296875 0.729353427886962891 7.63952255249023438 242 194 68
1.89147675037384033 0.175946131348609924 7.66328144073486328 254 170 113
1.99566090106964111 0.0812865570187568665 7.73469305038452148 43 211 225
2.25484108924865723 -0.431173443794250488 8.32907676696777344 224 0 10
2.10058856010437012 1.7318270206451416 7.84392499923706055 18 15 8
1.81240272521972656 0.652949631214141846 7.64474153518676758 209 156 78
1.79649651050567627 0.51118922233581543 7.65516996383666992 91 72 40
1.87883162498474121 0.395936816930770874 7.8064112663269043 212 111 57
1.78310692310333252 0.416289299726486206 7.75058746337890625 107 62 32
1.78706276416778564 0.0986105203628540039 7.73010540008544922 48 96 99
1.91679811477661133 0.00248227594420313835 7.67475414276123047 255 169 111
1.69223570823669434 -0.126195833086967468 7.64668750762939453 48 3 0
2.31605243682861328 -0.327686339616775513 8.23646926879882812 52 0 0
2.12148904800415039 -0.436044782400131226 8.41426467895507812 114 229 196
1.98356056213378906 1.41445612907409668 7.83899116516113281 41 13 0
1.72266685962677002 1.39655280113220215 7.87923049926757812 254 249 237
1.940277099609375 0.938512563705444336 7.62116241455078125 253 190 72
1.41457092761993408 0.876908838748931885 7.30199003219604492 70 159 131
2.01328039169311523 0.737318873405456543 7.63484716415405273 40 0 0
1.75319993495941162 0.705260694026947021 7.6777338981628418 148 89 19
2.22696805000305176 0.691313564777374268 7.8206181526184082 255 251 245
1.89967679977416992 0.612356305122375488 7.63516330718994141 30 3 0
1.92135262489318848 0.531395137310028076 7.64172029495239258 70 25 0
2.15892958641052246 0.390250653028488159 7.90472316741943359 255 248 236
1.86798775196075439 0.211883872747421265 7.69414091110229492 253 147 108
1.92598104476928711 -0.00101761962287127972 7.68301486968994141 75 1 0
2.44019770622253418 -0.378652960062026978 8.33423233032226562 28 221 209
1.89533317089080811 1.47431790828704834 8.16587734222412109 30 2 0
1.84350430965423584 0.798601984977722168 7.62898874282836914 182 130 6
1.84350430965423584 0.798601984977722168 7.62898874282836914 182 130 6
1.97448015213012695 0.70843738317489624 7.62524938583374023 134 96 69
1.91647279262542725 0.731954336166381836 7.62629365921020508 129 65 1
1.92698240280151367 0.730726122856140137 7.62637472152709961 211 143 71
1.90320742130279541 0.660707533359527588 7.63977336883544922 15 9 9
1.87547552585601807 0.219498038291931152 7.69499349594116211 186 56 24
1.93184566497802734 0.151168569922447205 7.66160869598388672 131 15 1
1.7843698263168335 0.0823514461517333984 7.72473382949829102 22 34 32
1.82124781608581543 0.0156186381354928017 7.67802143096923828 65 3 0
1.80186569690704346 -0.0339554622769355774 7.71075916290283203 163 48 19
1.80683505535125732 -0.0530853122472763062 7.70508146286010742 175 74 49
1.80558013916015625 -0.0587751008570194244 7.70165348052978516 131 38 21
2.29971003532409668 -0.524592280387878418 8.46851825714111328 26 161 120
2.51042318344116211 -0.70501786470413208 8.626129150390625 40 162 149
1.9082721471786499 1.46549487113952637 7.84201383590698242 254 255 252
1.94763457775115967 1.57860720157623291 7.84145879745483398 254 255 253
1.94763457775115967 1.57860720157623291 7.84145879745483398 254 255 253
2.23025131225585938 0.973326146602630615 7.79278326034545898 34 25 30
2.24350810050964355 0.568239748477935791 7.8402862548828125 31 23 21
2.24350810050964355 0.568239748477935791 7.8402862548828125 31 23 21
2.23528265953063965 0.345508933067321777 7.92263507843017578 254 255 253
2.23528265953063965 0.345508933067321777 7.92263507843017578 254 255 253
2.06955432891845703 1.47155070304870605 7.84825277328491211 22 17 11
2.06958937644958496 1.47072267532348633 7.84916305541992188 22 17 11
2.14585781097412109 1.69744670391082764 7.82347536087036133 16 13 6
2.03580045700073242 1.29860198497772217 7.81497001647949219 178 81 38
2.03580045700073242 1.29860198497772217 7.81497001647949219 178 81 38
2.22714638710021973 0.762279868125915527 7.80450630187988281 254 255 253
1.79885303974151611 1.71077108383178711 7.8130488395690918 22 19 12
1.79884970188140869 1.71019399166107178 7.80958938598632812 22 19 12
1.97286808490753174 0.847307801246643066 7.63365030288696289 244 180 56
1.78736937046051025 0.837865710258483887 7.63497543334960938 144 77 14
1.78736937046051025 0.837865710258483887 7.63497543334960938 144 77 14
1.83525204658508301 0.692785799503326416 7.64238929748535156 15 10 7
1.82123684883117676 0.544786989688873291 7.65666627883911133 24 17 10
1.98537075519561768 0.039033256471157074 7.74402999877929688 13 24 25
2.04306983947753906 0.722526252269744873 7.65610790252685547 233 128 72
1.81513321399688721 0.734057009220123291 7.64088582992553711 255 210 72
1.86226069927215576 1.72134292125701904 7.84225177764892578 255 255 252
1.86093771457672119 0.570193469524383545 7.64704370498657227 43 40 36
1.60362100601196289 0.149722710251808167 7.87701892852783203 89 35 25
1.76190602779388428 0.0361390449106693268 7.73252677917480469 211 79 40
1.9066547155380249 0.588426113128662109 7.63456296920776367 17 13 14
1.91380226612091064 0.562644064426422119 7.64059591293334961 160 89 14
2.02095174789428711 0.76996302604675293 7.63715600967407227 34 25 24
1.89793539047241211 0.158166408538818359 7.65838098526000977 209 63 33
1.86704325675964355 0.177476659417152405 7.68818998336791992 250 149 95
2.20481061935424805 0.0701016411185264587 7.93107175827026367 82 78 58
1.75528502464294434 0.0786434933543205261 7.72412824630737305 8 7 3
1.77683889865875244 -0.0715680420398712158 7.69778299331665039 50 0 0
2.33207035064697266 -0.33218654990196228 8.23694038391113281 252 24 19
2.11899185180664062 1.41180157661437988 7.83895349502563477 37 29 26
1.39553678035736084 0.82132267951965332 7.31645393371582031 128 76 34
1.84849905967712402 0.686451137065887451 7.64322280883789062 43 37 39
1.98192954063415527 0.47972571849822998 7.67038536071777344 82 56 29
1.86302328109741211 0.329197615385055542 7.87642765045166016 189 95 54
1.77236533164978027 0.104171216487884521 7.7298731803894043 245 252 239
2.26506280899047852 1.70300924777984619 7.71879196166992188 254 253 249
1.76665246486663818 1.65965545177459717 7.83777284622192383 240 237 236
2.05355954170227051 1.25573348999023438 7.75604581832885742 183 90 46
1.81023490428924561 0.519954025745391846 7.65657711029052734 143 131 107
1.94739854335784912 0.185589432716369629 7.69580507278442383 73 3 0
1.91757142543792725 0.928251743316650391 7.61609363555908203 225 159 39
1.72401416301727295 0.913164138793945312 7.63077783584594727 240 181 101
1.72401416301727295 0.913164138793945312 7.63077783584594727 240 181 101
1.79396629333496094 0.0880204886198043823 7.72620153427124023 244 252 255
2.01624298095703125 1.28858697414398193 7.36441183090209961 254 252 229
1.96855080127716064 0.821621179580688477 7.62598133087158203 164 96 1
2.1993401050567627 0.628393650054931641 7.79927492141723633 114 56 38
1.62046563625335693 0.52861320972442627 7.56958818435668945 166 92 54
1.93360292911529541 0.235743328928947449 7.6966552734375 254 139 93
1.90796446800231934 0.229813799262046814 7.6828312873840332 254 151 116
1.90826380252838135 0.229841098189353943 7.68324470520019531 254 151 116
1.97474682331085205 0.0663894191384315491 7.72745990753173828 0 25 23
1.97048377990722656 0.0578141920268535614 7.7285923957824707 242 249 248
1.97048377990722656 0.0578141920268535614 7.7285923957824707 242 249 248
2.35161638259887695 -0.368777632713317871 8.26499271392822266 214 15 20
2.12403273582458496 1.39758741855621338 7.84617900848388672 41 19 10
1.72761416435241699 1.42556869983673096 7.87525129318237305 20 3 0
1.7304455041885376 1.40316331386566162 7.87126636505126953 92 51 14
2.07707619667053223 0.728392660617828369 7.68440723419189453 242 147 103
1.9414374828338623 0.743463397026062012 7.632049560546875 209 137 59
1.90822076797485352 0.705742418766021729 7.63401937484741211 46 41 40
1.90493106842041016 0.621017813682556152 7.63385391235351562 50 43 40
1.83962130546569824 0.547838389873504639 7.65002632141113281 31 8 0
1.78094840049743652 0.561354756355285645 7.6596531867980957 150 122 99
1.78094840049743652 0.561354756355285645 7.6596531867980957 150 122 99
1.71927547454833984 0.385614067316055298 7.71307086944580078 104 97 71
1.87185335159301758 0.229693233966827393 7.68916559219360352 255 144 98
2.21333074569702148 0.0527483224868774414 7.92292499542236328 41 17 2
1.96240639686584473 0.0716156437993049622 7.72122001647949219 30 71 73
1.76579058170318604 0.0517949052155017853 7.7148432731628418 200 115 94
1.91479361057281494 -0.023829357698559761 7.68175983428955078 134 34 17
2.41673398017883301 -0.423558473587036133 8.37880992889404297 62 251 239
2.38347315788269043 -0.376525282859802246 8.30243968963623047 72 11 9
